# 3D point list with one line of data per point:
#   POINT3D_ID, X, Y, Z, R, G, B, ERROR, TRACK[] as (IMAGE_ID, POINT2D_IDX)
# Number of points: 402, mean track length: 3.5128022759601709
2461 -2.9806451474835196 2.3711916940142346 3.4567711850056355 67 66 61 1.6642715120593421 1 334 10 396
1122 -1.4255774698177939 3.4322691947413166 4.2597542443750553 160 101 101 0.77120214447115876 5 620 4 623 16 620 13 774 12 712 7 847 15 486 1 661 14 509
1125 -1.4522882716637777 3.278734041679114 4.3589625244366514 103 74 56 1.2113576291905004 5 623 4 628 16 632 13 546 12 717 7 549
1940 -2.6874633551358622 2.3002348755853639 3.519893623016439 49 49 47 1.3841820010631924 12 786 7 493 15 381
2966 -1.3889438922625557 1.3940284755143202 5.7043325964749441 194 106 97 0.10696546272597431 6 671 11 927
1127 -2.3277895933732946 3.0628258879471488 3.8404644976802942 59 59 61 1.8518899674366167 5 633 4 636 16 494 13 534 12 503 15 402 1 618 8 736 14 430 7 518
2459 -2.5097249098202274 1.8960478558601235 4.0650801895785174 22 18 14 1.1240949341991535 8 432 10 322 2 304 3 249 6 289
1128 -2.5745086789300591 3.1900786444751068 3.6661096114181673 39 47 44 1.1657703549741414 5 858 4 642 16 690 13 727 12 761
1129 -2.8113154984068833 3.260432863519322 3.6008126692574307 38 37 42 1.2256929575635194 5 857 4 644 16 964 13 1324
1944 -2.5486777506226259 1.9703683779011343 4.0441494047662738 49 49 51 0.99844610147581003 12 502 7 504 15 393
1130 -3.3561801855725442 2.709176882867339 3.4295080258708195 2 2 2 0.79050977787580157 5 893 4 659 16 1329
1133 -1.3562886272191772 3.4394153530851361 4.2503622502373481 116 105 94 0.82094451975854099 5 1181 4 674 13 1409 12 1199
1948 -1.5996802456686978 3.5088554442348516 4.1106432895622502 120 116 105 1.841131400615204 12 451 7 544 15 425 1 472
1135 -1.3126410802296582 3.3126273160473554 4.3778802063445701 180 123 116 0.2121290413186209 5 834 4 679 16 610 13 1406 12 1198
1136 -1.5836792563832651 3.4111025136955639 4.2405518982415895 143 130 122 0.57543150880493998 5 621 4 680 16 581 13 767 7 826 12 720 15 426 1 474 14 425
1137 -1.3243746652779067 3.2807320692099786 4.3947137632485678 131 72 68 1.0648151948865794 5 835 4 683 16 1022 13 772 12 992
2016 -1.6004142441042941 2.1007092515833539 5.291742818290019 221 137 135 0.52990973632354321 13 2165 7 1414 15 886
2541 -0.64980352204772374 1.9529625075724855 5.6823956902388639 234 56 56 0.76610764735792525 8 219 2 166
1138 -1.2112645303303524 3.1633445598055259 4.5205209652527296 255 165 113 0.61617018666792023 5 1168 4 690 16 1019 13 959 12 1001 7 1009 15 715 14 730
1141 -1.4080204760878599 3.1011139724356078 4.5293017516226364 143 75 66 0.3760456888502508 5 845 4 697 16 997 13 934
2020 -2.5209748888248433 1.8177942568798497 4.0899458649831946 5 5 7 1.6251078269019399 12 1729 7 1490 1 1000 8 1449 14 822
1143 -1.3427341089961244 3.0525532219292173 4.586010685780705 99 67 56 0.35616263878512633 5 848 4 699 16 664 13 763 12 716
2539 -4.0734868419460497 0.74059589837074113 5.4156669091511915 203 177 160 1.3648816546353617 10 226 6 165 11 110
1144 -1.3457742878832004 3.0221704680737118 4.5972678942393621 225 137 135 0.70745202630231008 5 680 4 702 16 991 13 762
1145 -1.3959169460133392 3.0339904754645115 4.5840640722750363 95 65 58 0.54795561143638538 5 850 4 703 16 666 13 761 12 719
2024 -3.8871679168724222 1.9425786882125253 3.7270374615905815 105 108 101 0.76165435016234273 12 1618 7 1586 15 1129
1146 -1.4242531653170982 3.0423129651830041 4.5582980719458996 219 165 146 0.71920972686972962 5 1160 4 704 16 667
1149 -1.8059460965927618 3.0016758690824723 4.5373517931407363 58 30 26 0.68455350481542832 5 740 4 718 16 1411 13 1371 12 862 7 967 8 980 10 994
2028 -2.6604392582151437 1.5993468650570684 4.1964207941770475 21 25 24 0.7108727772407869 12 2505 7 1636 15 1504
1151 -1.5529878252745519 2.8419008722055272 4.7135141411414851 242 104 102 0.90502395125662105 5 637 4 724 16 803 13 747 12 726 7 823 15 473 1 568 8 616 10 731 14 503
1152 -1.6762250005226318 2.3865389161410131 5.052352442903854 222 99 108 1.0669084265550823 5 1112 4 751 16 956
1809 -1.5113497303837498 3.042492451444311 4.6019666358051126 121 100 85 1.5272268673656884 13 1395 12 1171 7 1171
1154 -2.2915430049063876 4.4411729930564583 3.2686274736810663 148 137 131 1.0534512940566263 5 603 4 842 13 1407
1155 -1.0818707072680565 4.0057396931093203 3.8482225139879089 100 92 89 0.85905105089757361 5 809 4 848 16 1096 13 2035 7 1352
1156 -1.2353454229804954 4.1146265590642681 3.7201710973054318 97 92 89 0.49209767940137811 5 604 4 851 13 823
1813 -0.16775156780335945 3.6248605451681843 4.3010881132115273 178 114 100 0.74222487200655285 13 1510 12 1289 7 809
1157 -1.0502794242288866 4.1564054475830154 3.6965000671338228 98 88 86 0.92243458021861613 5 1205 4 863 16 1631 13 2029
2839 -3.2867967689949027 2.1724844564462269 3.4951748556942697 21 22 16 0.7429809541115503 3 55 6 47 11 97
1158 -2.3593753767053132 4.7559511774975132 2.9822623064222746 137 43 59 0.2864745403150859 5 1233 4 864 16 1573
1160 -1.5434066043355124 4.5879988636615971 3.2844158507283026 137 48 63 0.37262746346489894 5 960 4 880 13 1470 16 1639
2328 -3.3975587910665439 1.6151613410304473 3.8679295886917959 148 180 167 0.23404788052141187 1 306 8 246 10 257
1163 -1.8970081496845397 5.1097732463706649 2.9317326856279347 129 54 33 0.27212098999378487 5 771 4 894 16 1140
1164 -1.0970520349086603 4.9830699477828659 3.1916811427655425 125 36 4 0.6985471255503406 5 755 4 904 16 612 13 1070
1821 -2.6709571698499279 1.8024209462478409 4.0930236552287953 12 12 11 1.4601335722729922 13 1676 12 1377 7 1069 15 1091
2322 -0.17807356283937367 2.6964061341965935 4.876221737673581 202 89 71 2.0359933232444374 1 181 8 222
1165 -2.060924477163196 2.3160612621504142 5.0286792298575085 134 63 65 0.86754760455381075 9 1236 4 910 13 1197
1166 -1.6315649660775646 2.370064020443829 5.0604843180870347 236 106 118 1.5339378395268333 5 1111 4 921 16 1390 13 4366
1168 -1.562738514501909 2.7363417107968298 4.7898673267830505 195 51 60 0.75016007892338954 9 1602 4 932 16 1423 13 1372 12 1297
1889 -3.8282191434632225 2.3393057557325303 4.3598235065507449 0 2 1 0.81750147385607719 12 173 1 135
1171 -1.635830399460015 3.074914039078934 4.5102223271082211 134 101 92 0.69902089990615879 5 1473 4 943 16 1422 13 1440 12 1652 7 1135 8 987 10 1330
1172 -1.5507864331736769 3.0597157983372378 4.5412719268150363 137 87 80 1.2969584623379264 5 1469 4 945 16 1428 13 1834 12 1168 15 828 1 976
1893 -3.0685147459983577 2.935342322646691 3.7908316528328547 2 2 2 1.7445726469248997 13 176 7 162
1173 -1.4720982327867564 3.0316704498169589 4.5675946930347058 189 149 139 0.30827393098920014 5 1471 4 946 16 1432
2919 -6.1028324207278581 0.56397953574942017 5.6220309710606235 161 138 130 1.1076186558176002 3 1041 6 1060 11 2074
1174 -1.2997228846514091 3.0155541237025378 4.6037511830743032 117 72 67 0.85722168418424916 5 1159 4 949 16 1444 13 936 12 1187
1176 -1.5293859262050522 3.196489955663945 4.4349808571786751 96 63 62 0.76577861486612009 5 1165 4 953 16 1448 13 930 12 842
2408 -3.8906805977747747 1.0461105312694672 4.5414724389698327 56 88 73 1.4182112768883026 1 861 8 1136 10 1200
1179 -1.4578840746762545 3.2041528339753187 4.4471208918203002 145 84 91 0.97027098078453156 5 1311 4 957 13 1536
1180 -1.4037502932362274 3.2594652256533347 4.4148634858906624 125 61 52 0.80865606329355155 5 1309 4 964 16 1468 13 1386 12 1189
1901 -3.9055604863986746 1.1326718140084335 4.6380539345034091 56 67 63 0.04959942601736167 12 167 7 215
2402 -2.7406148667214305 1.5031454613299127 5.6162245581889554 162 154 141 1.7382329018790552 7 724 8 905 2 235 3 258 6 167 11 147
1181 -2.533186271357188 3.7814050640957855 3.7592351736739493 111 94 86 0.86901615496717266 5 1444 4 966 13 1367 16 1431
1182 -1.5465750869465122 3.3966208391114598 4.2657256306350018 116 103 97 0.44233636754803296 5 1455 4 968 16 2157 13 1543
1184 -1.6806658917992683 3.5182607465602533 4.1335837189861584 123 118 112 0.44940773461653283 5 830 9 1883 4 973
1841 -3.8277842920885252 1.0275181643455877 4.5614149293721571 116 128 121 1.2520919481742832 13 1976 12 1886 7 1554
1189 -2.0035847891392318 3.9133645537183726 3.7482161125106415 131 128 121 0.68434576103870681 5 1560 4 987 13 1383 16 1496 12 1165
2004 -1.6650833372558607 3.5017363235525001 4.1184272736793703 167 163 151 1.2041490868499745 12 1178 7 1293 15 968
1192 -1.544692280758422 4.4963812398178682 3.3609647342604143 209 101 99 0.51614736707192765 5 1390 4 1032 13 1548 16 1780
1849 -2.7729808991069942 1.5245339883118663 4.297551406383243 24 24 24 2.1942938420918088 13 4667 12 2501 15 1671 7 2013
1199 -1.291565837097445 5.1204629689405365 3.2646225953938419 147 45 13 1.1534578207638155 5 754 16 816
1200 -1.6425270312971376 2.9866766910461182 4.5790075082061792 145 115 104 0.75233917904268333 5 1147 4 1076 16 1415 13 1379 12 853 15 467
1793 -3.0262052457031361 1.7270415849611656 3.8482127731634517 21 28 23 0.44252271726423142 13 648 12 965 15 847 7 1230
1203 -2.0346647572036862 1.6273056612414289 5.6032085980026913 232 182 109 0.32788601110623006 5 1075 4 1126 13 1289
1204 -1.3895509176973226 4.448211974186516 3.4266371532098376 212 125 132 0.68005634506635482 5 1400 4 1163 13 1550 12 1412
1797 -0.96272574606773442 2.94558457266485 4.746547670180572 244 124 99 0.6942576759165936 13 962 12 1007 7 1194 15 594 1 836 8 683
1205 -1.2363387628681077 3.3755360548430264 4.3187921738594 172 97 91 1.0126489996947099 5 1450 4 1165 16 2182 13 1415 12 1207 15 1053 7 1306 1 970
1208 -1.3674445579711425 3.1815747610259115 4.4589524980473323 183 102 101 0.35131219613456649 5 1461 4 1177 16 2148 13 2079
1801 -0.46717320254697425 3.6318399525880514 4.1850411597267421 81 70 66 0.81891893804392524 13 1481 7 1041
2312 -4.1781489093623758 3.4051206923112423 3.6836014731110578 144 148 133 1.6475201872055742 1 61 8 157
1211 -1.4986984102656997 3.0751006319737089 4.5838948728698226 208 158 145 1.5580907238673634 5 1722 4 1184 16 2125
1212 -1.426979163801313 2.9788057330995152 4.6064434532493914 121 77 71 0.85574755098568889 5 1474 4 1189 16 2124 13 1837 12 1176
1805 -0.14435560660414667 3.5194837651383306 4.4344278443093677 217 106 87 0.92520268694870911 13 1050 12 1085 7 862 1 746
2306 -7.6057968863456713 3.3333325594318377 3.1073112239041536 134 73 29 0.64690828076415063 1 191 2 58
1213 -1.5186962985607448 2.9553465285245046 4.6218866399087215 92 64 56 1.6227028973222577 5 1145 4 1191 13 1830
1214 -1.736446387509613 2.5054068517504731 4.9768279677847227 219 195 157 0.85734799261711625 5 1510 4 1205 13 899
1219 -2.1877623511365822 1.5688268630044115 5.5802347553364395 193 130 92 0.70216789420155867 5 1803 4 1247 13 1714
1220 -2.1274785631642672 4.6837663686831466 3.0718583977865572 171 81 93 0.28004315081892622 9 1520 4 1256 16 1588
1877 -0.69528817552430722 2.7275066015116631 4.949267247573693 215 64 65 0.62120188156199085 12 54 7 67 1 50 8 62 10 63
1221 -1.6400225490601237 3.4366371842766124 4.2156374686168734 116 109 106 0.55331916734774966 5 1567 4 1275 16 2153 13 1851 12 1666 7 1086
2903 -5.7023892092080617 3.6140986947032276 3.2890199367408166 155 156 142 0.58452921062298369 2 645 3 761 6 725 11 797
1222 -0.8916594079090383 4.3254049253468692 3.5920485745634143 211 104 120 0.53416354267756538 5 1384 4 1301 16 1209 13 1589 12 1448
2601 -3.624572862037053 1.2678435563054413 4.2396941050308996 228 252 246 0.9648644745460847 10 1147 2 716 3 633
2392 -4.4206576195887495 0.96014325727035232 5.1534539346392405 68 70 59 1.1547810055501115 8 775 10 836 2 464 3 358
1227 -1.3402778275894414 3.1244324444246891 4.5196931753440728 175 99 80 0.41257041481634749 5 2015 4 1363 16 2145 13 2081 12 1951
1228 -1.3279804079748752 3.0741125283444455 4.5718871310289311 148 119 113 0.34760422378721118 5 1715 4 1369 16 2140
1885 -1.4356718763048135 1.888397269938124 5.4825791943452966 225 77 91 1.5013706250912691 12 88 7 110 15 67 1 69
2386 -2.8072925098936792 1.5358485072918759 5.6124661134235199 170 153 139 0.36774048473457221 7 929 10 1291
1229 -1.3775343174017127 3.0726172681514767 4.547559687478107 104 67 51 0.28139289719210431 5 1716 4 1371 16 1446 13 1847
1230 -1.4105635615163139 3.0677065287939862 4.5745881775194057 103 70 57 0.97873739503100199 5 1718 4 1374 16 2282
1235 -3.6587583987734815 1.0522752776914965 4.5901467292357774 104 95 88 0.37349980230383811 5 1875 4 1745 22 5097
1236 -1.6638902793688872 2.5103054675699008 4.9764281602918192 218 209 166 0.89639276908805721 4 20 16 12 13 22 12 23
1957 -4.9963000549390264 3.6123475160807859 3.3819453399111663 162 149 140 2.1569038134336922 12 541 7 643 1 733
2983 -2.9768006011315675 2.8108721537556649 3.9643146022962266 172 190 178 1.8090655004629788 7 164 15 84 14 64
1238 -2.2496084539716019 2.8381372869530161 3.8146370628479871 1 1 3 0.83298715894092767 5 98 4 70 16 68
2472 -5.7352977811186712 0.62335728446686534 5.6412480068253013 136 121 114 1.4089848048520615 1 636 10 465 3 644
1243 -2.3596520169028952 4.6503369739707923 3.0710704085737479 228 136 136 0.64270502664366791 5 1218 4 1007 13 976
1245 -3.5484300747465611 2.0369063159885883 3.9841917122937032 6 11 5 1.7080394732637656 4 5 12 16 7 22
1246 -7.9266199402371527 0.078985407955757911 5.7038812037152828 183 152 147 0.47004068270736099 4 26 16 24
1248 -2.5772148052949624 2.9053859539120039 3.565089000371326 132 151 147 0.38652708866189034 4 68 16 63
1905 -2.0121071256940177 2.7638030574489152 4.6901157402823461 33 8 3 1.1495544661363806 12 221 7 255 8 299 10 167 2 181
1251 -2.5743645777883257 3.0466323640619706 3.5768593251608283 2 2 4 2.0862944368824277 4 123 16 67 13 162 12 138
1252 -6.9221710390470834 0.73579828799609936 5.4682923137172557 181 162 155 1.9229134333036637 4 53 16 83 13 103
1909 -0.99474395380951175 3.2802538824381449 4.4056662436486738 202 112 103 1.2376767792752077 12 244 7 289 1 372
2935 -8.1324687364444408 1.1554220968879596 4.6375308115883058 153 134 127 0.25426115453532028 3 571 6 433 11 393
1254 -2.4127938998767986 2.5322666926266355 3.7506082055414249 0 0 2 1.4896060843745123 4 148 16 90 13 150
1256 -2.5722531141134599 2.6767652114546325 3.6063760287156739 10 6 7 0.68944207451671458 4 153 16 92 13 149
1913 -1.0399740400364237 2.634612872589674 4.9764829907647856 232 63 75 1.1816397015851765 7 310 15 437 1 326 8 390 10 593
1260 -7.5069145288476333 0.4695312262100747 5.4344750616590574 180 152 146 1.1614842179912637 4 175 16 112 13 216
1917 -2.1076420257937141 2.2937709160473201 5.049717995885687 150 141 106 0.97708489454138792 12 377 7 334 15 285 1 371 8 301 10 208 2 178 3 184 6 161 14 291
2418 -2.6459377197245226 2.4240554792937399 3.5887857160500292 7 9 4 0.87752884188928026 1 1222 8 2003 10 2022
1261 -4.0071609199714118 1.074074966761116 4.6038237174248726 217 230 221 1.3769156483324478 4 155 16 118 13 107 12 165 7 93 15 106
1262 -3.8430378679458288 1.0940397590224291 4.5859438991569501 84 90 88 1.0524869224467313 4 119 16 119 13 110
1264 -2.8373980291754597 2.3096271760618445 3.5430886688732892 1 1 1 0.74704242966515055 4 91 16 134
1857 -3.1058443494793004 1.7152773823537586 3.8130395312257916 213 221 212 1.5201761687964743 13 266 12 261 16 371 15 243 7 392
1266 -2.0597250954728619 2.6879635817154668 4.7602201773400941 59 43 30 2.0138819012634475 4 114 16 140 13 168 12 93 7 117 15 126 1 83 8 47 10 44 14 113
1267 -2.6457926454546241 1.7560029818771736 4.0415025677151064 2 0 1 1.316515255865534 13 236 12 417 7 237 15 211 1 243
1268 -2.4994848501753895 2.9834049343235223 3.7535994007917575 144 161 154 0.27357220298475993 4 330 16 170
1861 -3.2608601471729513 1.7496210840369271 3.7526358232181698 203 215 205 0.67501626225534272 13 633 12 618 15 334
1269 -2.3054555932478955 4.6276720552187829 3.1359024832039197 116 101 94 1.6605340544862417 4 327 16 186 13 323
2887 -8.6674459619572879 1.420322132030577 4.5268051204041644 160 91 52 0.56869976819069412 3 575 6 528 11 616
1270 -1.6726887989963195 4.4771490552919992 3.3211098659774065 92 71 68 0.54104626964573643 4 172 16 188 13 295
1272 -2.9567306973896845 1.6647145005809447 3.926022940162841 4 4 4 1.270913979574396 4 199 16 220 13 119 12 192
2376 -0.58140139042288452 1.4541625032248273 5.9880919377544766 206 81 75 1.3814773135552501 1 749 8 662 2 384 3 597
1275 -2.3672806214792388 2.8126542796197356 3.8979331246804634 1 1 3 1.8737101804038057 16 314 17 129
1276 -2.1365490989214351 2.54697899792356 4.8509912253978005 24 0 0 1.1851886909691121 4 249 16 315 13 342 12 371 7 333 15 286 1 370 8 422 10 336 2 234 3 187 14 288
1869 -7.5100392742257123 2.82451196267963 3.800512769605664 119 100 94 0.28565462313613821 7 30 15 23
2370 -2.8895641931936371 1.5427158577918683 4.04013930044262 0 2 1 1.91742078405358 1 513 8 559 10 509 3 347 6 429 11 352
1277 -2.1895853134313401 2.5630119431076874 4.7412469913378228 45 33 21 2.4387733415886266 4 359 16 316 13 187
1278 -1.9777245224732369 2.3048382675896142 4.8813379092934968 153 74 80 1.737748517145248 5 895 16 319 13 346
1280 -2.4274162504594465 1.4131330232874526 5.6997954623207994 136 112 110 0.78126436970257807 4 275 16 347 13 248 12 213 15 148
1281 -3.362639846059456 2.1965914832197724 3.5460918624243578 139 146 139 1.5953193537285446 4 215 16 353
1712 -4.5701727724681964 0.44016296778088199 6.0598206803811525 186 142 139 1.2518854171650284 13 49 12 64 7 85
2237 -0.64747784260883523 3.0102095254295009 4.7434496977557261 226 184 144 0.91054543013547617 7 444 1 400 8 198
1282 -2.9567932587492143 1.7388159965216776 3.8667075894779104 122 126 125 1.6963955732559195 4 282 16 364 13 353 12 194
1285 -2.9842393422265259 1.5030717742181527 4.0551638545629123 122 127 121 2.2642537219851353 4 298 16 375 13 637 12 626
1716 -1.1846308736334552 2.7133209555293747 4.894479673167587 230 60 71 1.46848812940896 13 79 12 84 7 107 15 69 1 172 8 89 10 73
2742 -7.9693978898885192 2.1038626385671995 4.0495333731650591 231 183 168 0.29378184372916699 2 624 3 577 11 595 6 420
1287 -3.1256346770155337 1.5055108382479532 4.0028463122711351 120 130 121 0.92449324946920453 4 307 16 384 13 420 12 267 7 395 15 242
2235 -0.68064878305092136 1.8764893451084459 5.5363178331643041 224 50 59 0.014577506883323214 7 559 1 396
1288 -3.3661252019897985 1.6077020912564559 3.8545947781423084 170 187 175 0.42558671932833414 4 435 16 387 13 411 12 278 7 404
1289 -5.2763592457754438 1.0870627902572814 5.4261062451522468 192 162 154 1.6929993710528697 4 146 16 395 13 218 12 113
1720 -2.6913590834985057 2.4439224321067536 3.4732553379859339 1 1 1 0.553401600775837 12 121 15 87
1290 -2.6099201192963442 1.362818231700849 5.684277263327755 141 110 105 0.36810594909644551 4 280 16 403 13 395
1293 -5.1622685502065515 0.81048694328824311 5.6314511513981111 223 112 118 1.469594617135455 4 430 16 421 13 459 12 288 7 414 15 354 1 441 10 240
1724 -0.52999066082639457 3.3448349778635458 4.4707341685753654 168 76 77 1.6997201887641973 13 94 12 154 7 170 1 106
1295 -2.8356152746096939 1.9096284325560424 3.7461542871127635 120 123 122 1.211292195717288 4 451 16 444 13 500 12 501 15 371 7 604
1296 -4.9124316636966014 2.8348076781065599 4.1163288639755322 162 166 152 1.6237276613739386 4 457 16 446 13 476
1297 -2.7407459098703861 1.8423401460690376 3.9664187968875821 118 129 125 0.72063446864494496 4 505 16 447 13 494 12 666 7 902 15 380
1664 -2.6300079466140907 3.7653595839708562 3.7223252577566295 134 114 103 0.35381745425678912 16 5920 13 2133 12 2471
2189 -2.8702788121676464 1.9373717901779137 3.7024197960286447 97 106 101 1.5739419732744357 7 2036 15 1311 1 1142 8 1272
1298 -3.0043709166616903 2.1503938330221781 3.5663526578982303 147 152 146 0.38021664786260045 4 514 16 451
1668 -3.6924454426225095 2.8466336791778324 3.8738845664986159 47 46 41 0.96533186672134508 4 1518 12 1567
2694 -2.8642004897451709 1.8288120217540076 3.7727883282492232 49 49 45 0.54333336075284755 2 390 3 331 6 264 11 367
1303 -1.0816257251114105 3.3084472318866429 4.4196930551453146 117 72 70 0.94092035359691939 4 380 16 503 13 318 12 348 7 460 15 268 1 485
2187 -2.8453569212734799 1.3583371873255707 4.391632764486757 52 56 55 0.35469324103119265 7 2026 15 1236 8 1177
1304 -1.5299231973395611 3.7434546555310906 4.1604452329735446 108 93 86 1.5843627515404228 4 423 12 706
1305 -1.0383440549651097 3.5692114478015649 4.2329523512716518 108 76 71 1.1213199014680966 4 612 16 513 13 837 12 1020
1672 -3.6373543026304729 2.4643518532299744 3.99654424973544 202 206 205 2.395123188948439 16 4955 12 1861
1306 -2.1866189586255547 4.6164662547624227 3.1830472747764111 118 104 95 0.84061764015728269 4 542 16 520 13 563
1309 -1.8105146572348823 5.190895324397351 2.9207086348702114 183 78 48 1.0865137659983779 4 411 5 402 16 538
1676 -2.7089209987282747 3.3252486981307525 3.54600297554666 35 36 38 1.9110159647536396 16 3744 13 2629 12 1768
1311 -0.69279004045068249 3.8937244277194356 3.9962347240890108 196 149 97 0.26714557093816849 4 595 16 564 13 808 12 650 7 667
1312 -1.5694867285841172 4.5538507280833258 3.2983952643165728 140 49 58 0.33722092955939492 4 575 16 565 13 583
1313 -0.61632301634177789 3.9824011738435057 3.9488707716864346 82 63 56 1.3113205859417401 4 589 16 572 13 800 12 645
1616 -0.74165650046200093 4.292135732379541 3.6822653780254275 83 57 59 0.36127957324318799 16 1860 13 1509 12 1268
3020 -3.3475183502774226 2.0579133442355961 4.103870250610937 127 129 124 1.9682299347046148 5 529 17 418
2141 -1.848056181952471 1.6870711732580594 5.563220263817013 196 99 92 2.2530216068650644 7 954 15 507 1 708 8 701 10 669
1314 -0.71153118662257087 4.0860466617839899 3.8495947473499972 95 86 78 1.4387850843942764 4 579 16 574 13 2986
2646 -2.2315197619106231 1.4346050528001777 5.6654587935334959 132 118 108 1.1320617145634824 2 100 3 128 6 157 11 138
1319 -1.3856503559001381 2.9421925993677309 4.6624153540923485 160 87 83 0.1772555491093222 4 630 16 670 13 757
2139 -1.2375159930921003 3.3164337930597059 4.3846166959503279 192 127 107 1.043344352122286 7 845 15 494 1 651 8 699 14 514
1320 -1.4373994160839809 2.9265606235148454 4.6678868436671124 142 72 70 0.42812731421481226 4 633 16 671 13 754
3019 -3.4251740195533689 2.1863712051263731 4.118565045724675 182 184 183 0.19736303140832778 5 228 17 214
1321 -1.6147792320591983 3.017301074696785 4.5715199457826659 92 63 57 1.0423775575429834 4 631 16 673 13 585 12 725 7 819 15 471
1624 -1.3560558892503818 4.4520712650631094 3.4562167751296791 233 132 136 1.4143552709708556 4 1035 16 1700 13 1553 12 1415
1322 -0.87330840098808449 3.7314268599833946 4.1454744764323763 136 92 91 0.75663465834928811 4 773 16 674 13 3449
1327 -2.8552043741206585 2.4854235846825778 3.4554662115106232 2 0 1 0.76137029006703549 4 775 16 738 13 690
1328 -2.9920511059806496 2.4496948384740791 3.4439146920055981 68 71 70 0.86703682644153202 4 524 16 741 13 686 12 795 7 760 15 369 1 594
1329 -3.2991389540854583 2.3607556545704029 3.4661810668204618 81 85 84 0.50676451734303229 5 662 16 755 13 878
1696 -3.648335271909688 1.5875065853797929 3.9936437205817983 170 183 173 1.2549035924597216 13 14 12 25 7 38
2221 -3.5341494697250795 2.1556628974758834 3.527071122599633 49 52 45 2.5937331360038289 7 136 1 206
1330 -2.7074243039970316 1.9960860308272437 3.7457725251513883 43 43 43 0.9388270766818323 4 512 16 756 13 678 12 796 7 489 15 544
2726 -4.7477336080892325 0.97678230421853418 5.5309232816250571 212 145 139 0.83447336985554055 2 548 3 488 6 369
1335 -3.4564912339295657 1.4093248884482477 4.0390727428695445 12 18 6 1.3730764469301966 4 485 16 798 12 611 13 625 7 782 15 635 14 571
2219 -4.8430891017137636 3.6352553775852789 3.4763684663575734 138 134 123 1.0112519127697075 7 219 1 204 15 157 8 130 10 126 3 85 6 84
1336 -1.0885822841824309 4.9634792160147096 3.208815842084304 178 63 36 0.96825204867552728 4 551 16 825 13 790
1337 -3.4402709262909208 1.422826348292064 4.0651660200478545 137 148 132 1.36899300308632 4 826 16 847 13 1106 12 986 7 872 15 633 1 586 8 1042 10 1146 14 705
1338 -2.8759885992323859 1.5361866981080303 4.1121079797865212 1 3 0 1.0227833306704723 4 815 16 857 13 1249 12 1359 15 914
1343 -2.1056382785643892 2.1048320378393344 5.1414750760906403 131 111 107 0.65730429066218288 4 1137 16 935 13 2232 12 1499
1344 -1.9406565242382894 2.0331355661411208 5.2609290671891031 168 118 119 1.3504570515273882 4 1138 16 938 13 2222
1345 -4.3061492590362409 3.8867252015921805 3.3121586379175643 154 156 145 0.81493619223219049 4 1198 16 948 13 966 12 1558
1776 -1.7873729496258666 2.0868758235357339 5.22710023618371 175 147 141 1.2303700415728056 13 2197 12 747 15 669
2301 -2.7824752441429239 2.6253488748778158 3.2146014551824482 133 137 120 0.33987347756281971 7 47 8 105
1346 -1.8913392222066439 2.5823061464047807 4.7320924777812978 101 78 64 1.6747182385671764 4 1540 16 962 13 1343
1349 -1.6456916110194544 3.1028987536690069 4.498637630226936 76 62 54 0.7047383285019394 4 705 16 985 13 922
2806 -5.7323763997580359 1.0289131343291229 5.3311446816821846 165 159 154 0.55768771423352514 2 869 3 1043 11 1182
1351 -1.2382196333655286 2.9868502276636928 4.6591148122557104 231 74 85 0.4870293882938973 4 700 16 998 13 937 12 1031
2299 -1.9756204157665365 1.6039608487847599 5.6141808842101621 225 215 143 0.89262995011248203 1 79 8 84 10 71
1352 -1.258046051140614 3.1176274354598168 4.5386459435382189 153 70 66 1.1443454445076056 4 1178 5 1463 16 1007 13 948 12 711 7 1006
1353 -1.2051240362775035 3.0858483504035781 4.5726133433394134 134 64 55 0.33258563222187654 4 694 16 1008 13 953 12 996
1784 -3.1596401380462873 2.1345393772078429 3.5239889423428266 98 103 99 0.46050140606986856 13 669 12 812 7 771 15 531
1354 -1.2300921445071569 3.1110494757765341 4.5522385258157483 240 152 132 1.1932742038173094 4 958 5 1164 16 1010 13 1391 12 994 7 1007 15 714 1 764 8 836
1357 -1.2200096862851906 3.3409708914940794 4.3682913866509949 149 82 74 1.2687275548511321 4 675 16 1030 13 859 12 697 7 846 15 495
1788 -1.3233172204119741 3.1007606722935219 4.5577412383931479 113 94 79 0.75270878503826388 13 938 12 829 7 1001
1359 -1.5028734722086721 3.5953380391468288 4.0740179151372402 104 91 82 1.5831632339261739 5 1690 16 1036 13 872 12 1299 7 993
1360 -1.5785402799259025 3.6814852269333564 3.9946443266184297 108 99 83 0.5029177541349571 5 819 16 1037 13 968
1569 -1.727653235752342 4.6238737231574802 3.196507950003145 142 45 56 0.32245934121823011 4 1038 16 1110 13 1013
1361 -1.1219853217446958 3.5920411410613662 4.1887066476973116 97 70 62 0.73597915367413846 4 990 16 1061 13 839 12 1014
1365 -0.86174909999897997 3.6579709917175163 4.1947052508840281 124 68 63 1.5799149692700187 4 898 16 1081 13 3403
1732 -2.8351636411005416 2.5201868270746486 3.4693200118766172 47 47 45 0.72231831229513599 13 250 12 206 7 236 15 210
1368 -0.89820995902224843 3.9082342255958622 3.964302609093612 120 88 85 0.66836748918383826 4 600 16 1100 13 1028
1577 -4.4498840324194102 0.89783422386110057 5.1141499813221936 71 50 39 1.1845240632156078 16 1187 13 1097 12 854 7 791 1 581 8 781 10 830
1373 -0.7228738453771999 3.9726239758985304 3.9192985856053775 138 77 85 0.50262165424150629 4 857 16 1117 13 1039 12 1065
1740 -4.5348252057104457 1.6061815156251105 4.2743275677991548 208 206 193 2.1593065405506962 13 620 7 631
2082 -2.3296261491565748 2.6143731600880518 3.7823674056714696 0 2 1 0.99531573380126936 7 172 12 136 15 141
1376 -1.175489245935222 4.5097240232537663 3.4157769709713004 76 0 5 0.75576714292355385 4 1053 16 1136 13 1484
1377 -0.54223513653239552 4.0533572375312099 3.8827748425148725 142 130 104 0.64139199223660004 4 577 16 1137 13 873 12 1077
1680 -0.62401916285889025 3.1199184561557054 2.9869085204533192 91 78 72 2.2262864587061699 16 2684 13 3341
2205 -3.3105911589004005 2.7140986851711455 2.4979693508206533 162 143 136 0.98655819006980172 7 134 1 58
1378 -0.6020857608852006 4.1359461304959106 3.8049078133710328 136 128 109 0.19602213164784599 4 879 16 1143 13 1056
1381 -2.6928432043528305 2.1637208007667943 3.6544292601403399 89 93 92 0.35220779628350751 4 1425 16 1190 13 2300
1684 -2.2601193800947748 2.9335348400106334 3.9406803982282157 0 4 3 1.9472823532071197 16 3725 13 4408 12 2560
2710 -1.7585709614319021 1.8740629162525786 5.4102433890338562 219 134 126 1.0083778583658671 2 240 3 407 6 320
1383 -0.50035206310359548 4.1289005850972638 3.8407188152518259 123 106 94 0.46581117959232565 4 882 16 1223 13 1222 12 1896
2203 -0.42247685933707452 2.5887100350760623 5.1499309131470028 104 68 65 1.5321897253998087 7 77 1 53 8 45
1384 -1.2915929908234429 4.7623304196102554 3.3385028274431918 131 59 44 0.42193956962458595 5 977 16 1224 13 1490
1385 -0.67908565708029034 4.2747884078332117 3.6676891027600265 236 94 118 0.63227584867881104 4 1295 16 1227 13 1516
1386 -0.6679846465590219 4.2838032123872418 3.7267427486739182 81 57 53 0.76606201029687659 4 1052 16 1228 13 1058
1389 -0.96626683902776689 3.3111562047178369 4.4296025898312585 212 103 96 0.40811079358565433 4 1161 16 1290 13 983
1692 -3.5113686844967704 2.3933553757761783 3.5046606573707662 61 63 62 1.5399691157542437 16 2514 13 4662 12 1866
1391 -2.3217711515339574 1.5495790114801895 5.6049198950606325 194 123 95 0.013877127747074443 4 791 13 1273
1392 -2.2337754024005405 1.7658072899513977 5.4976048908662394 230 126 127 1.4188835250484626 5 932 16 1333 13 1162
2285 -1.8594797739326145 1.9992835497559793 5.3609931810988556 170 74 82 1.6873728832112358 5 127 16 53 22 72 25 136 9 82 4 57
1394 -1.6882539516674371 2.7285924220366979 2.4107813355215839 0 2 0 0.74243290888683977 4 727 16 1400
1397 -1.3792403471332702 3.1002262260790272 4.545473370821095 226 171 151 0.98970662691194822 4 696 16 1449 13 935 12 833 7 998 15 707 8 705
1764 -8.5184230933938263 0.30271143155840918 5.0798368593380143 102 108 97 0.99312841018179465 13 602 12 587 7 801 14 715
2790 -1.4357474393726655 1.8116601355948221 5.5633750875435908 225 89 84 0.15455116215308837 8 1349 3 894
1399 -1.4301797168581962 3.2784218079032956 4.3722088291287422 160 76 74 2.0742013666647958 4 965 16 1467 12 1680 7 1298 15 840 8 821 13 2383 1 927
1400 -1.1344738635995317 3.1905376212038541 4.5001573789356772 243 118 114 0.70340089963307528 4 967 16 1480 13 969 12 1005 7 1017 15 722 1 831
1401 -1.1953237690893623 3.2893551345317755 4.4019987802646021 165 77 75 0.54467418197351769 4 972 16 1490 13 972 12 1206
1768 -3.1005623922084542 1.5338974190349275 3.9018993791763377 14 22 14 1.0022668660788585 13 784 12 620 15 630
1402 -1.9140485190176177 3.8397742263096646 3.8388747046640139 147 137 127 0.53371386718693248 5 1304 16 1493 13 1410
1405 -0.9958273396087387 3.2906021591464403 4.4735490482216544 162 67 63 0.71306046040030757 4 1352 16 1510 13 1430
1772 -0.46879310609831082 3.1936745586802293 4.6211605450869859 197 124 83 0.77994403204421181 13 826 12 665 7 676
1407 -1.2564087198267662 3.6034585456363164 4.1234198670819318 90 79 77 0.60137163508861102 4 1156 16 1524 13 2807
1408 -1.4295269920204958 3.7583225401119065 3.9636896822766072 134 123 117 0.61792063583810486 4 664 16 1528 13 1425 12 1205 7 1000
1553 -0.87803541331374768 4.4119497571429163 3.5069633789519132 107 6 20 1.4315614767747331 16 1225 13 798 12 1068
1412 -1.8308007994194884 4.5458596901858819 3.2677421815010748 227 145 145 1.0238897940325165 4 867 16 1598 13 1004
1557 -1.9026074870624241 4.5528289805306086 3.2762607423182453 106 87 87 1.4797983421357526 4 592 16 718 13 835
1413 -1.6579861695484661 4.5558255078179091 3.2649217721181891 167 86 88 0.57847282668858757 4 1470 16 1625 13 1015
2583 -5.694688121754087 2.1282488612390593 4.4753306849259209 127 131 116 0.6951857457870676 8 632 2 494 3 562 6 446 11 644
1414 -1.2532783756832975 4.4225393736472594 3.449209700966628 179 67 74 0.7337689806769383 4 1314 16 1650 13 1560 12 1236
1416 -1.0720923472070858 3.5081401717830962 4.2481947483008042 175 94 91 0.67213258764390993 4 1157 16 1673 13 1214
1561 -1.804189463726702 2.0644675322831758 5.2865668187598542 155 99 102 0.76924330786629036 4 766 13 885 12 888 7 960 15 670
1419 -0.95549500109026153 3.5641386903720984 4.2733888579514163 143 109 99 0.69532407426253984 4 1456 16 1695 13 2845
2072 -2.8287816882225791 2.0340708597617514 3.6671725361772141 1 0 5 1.0923803849890437 7 146 12 110 15 97 1 134 8 169 10 94
1420 -2.0960893965904352 4.6163467959111086 3.1508976673008933 187 94 89 0.35266970695775979 4 1016 16 1742 13 1890
1565 -1.2341043830344705 3.1907661342493427 4.4848973240322758 213 83 79 0.55566138083425332 4 688 13 958 12 702
1421 -0.79511077467057945 3.6849841268370698 4.2007712713654852 150 84 85 0.87756915724962237 4 1461 16 1744 13 3477
2066 -2.4223765105121222 2.637698841054358 3.7262877208567642 113 134 125 0.15762215133931368 12 133 15 76
1422 -0.79539997067505686 4.3163787237144291 3.6186366661338352 213 71 86 0.21823632201772242 4 1296 16 1747 13 1593 12 1453
1424 -1.0565526128916078 4.6898880915500616 3.4322313079105542 103 31 7 0.84923765410869978 4 1062 16 1778 13 1599
1633 -1.056231380340521 4.3866366987143897 3.5413245061939329 200 70 76 0.68940814606038936 4 1304 16 1826 13 1575
1425 -1.377422033108151 4.4528754155306238 3.4092556379934642 202 76 87 0.84174627332040586 4 1320 16 1793 13 1551 12 1414
1427 -0.62693956868386824 4.2765998534998566 3.681192607888748 203 71 82 0.57248337329255683 4 1290 16 1871 13 1581
1428 -2.6175637637945486 1.472790373119431 5.6144681042850921 220 159 131 0.48973471004908381 4 1114 16 1926 13 1264
1637 -0.89092158673788291 4.3509787926733186 3.605899331437477 200 65 77 0.7159996035114099 4 1475 16 2592 13 1590 12 1449
1429 -2.6694050706842787 2.2302587310410877 3.6211461977397024 105 109 108 0.30006336761965852 5 1778 16 1963 13 2545
2663 -3.5857550906204563 1.9721553853141882 3.6288184087699316 75 80 73 0.65690443198527448 2 215 3 211 6 194
1430 -1.9005387979083992 2.0313198631518605 5.2975014764319903 172 107 109 0.29892261459425218 4 1413 16 2022 13 1315
1432 -1.6337377127701211 3.0293746415121552 4.5264544628911771 112 78 65 0.61215587675576744 5 1727 16 2113 13 2113
1641 -2.827590601307346 1.3587923866099307 4.27901141746199 41 40 36 0.95250979934856195 13 1653 12 1670
2152 -2.347625668473039 1.6517168509362941 5.4989890039938532 209 146 137 0.12276510770163063 7 935 15 607
1435 -0.95346840841322711 3.3076064095931108 4.4530608924188133 157 68 59 0.85284496228935447 4 1162 16 2192 13 1889
1436 -1.0473657376636578 3.4117676397929304 4.3246974074609632 166 91 95 0.42582242497728373 4 1158 16 2200 13 1435
1645 -2.2429689913575195 2.9071502221104688 3.8802297374919585 85 86 86 1.0301939529064226 16 2069 13 1775 12 1762 7 1464 15 996
2146 -2.8737459707471493 1.8418600434076822 3.7805733161359938 137 160 147 0.42400646932738068 7 663 12 499 15 540
1437 -1.0197243344968296 3.2794001551195207 4.4421638103579077 207 115 110 1.6569600615916611 4 1164 16 2233 13 980
1438 -2.6240668560604896 3.832828579257773 3.6905991546115717 175 162 153 0.59159468850934094 4 1172 16 2293 13 2135
1440 -1.9181658479733965 2.2178857260738258 5.1361834447814969 191 106 109 0.58806276815290082 4 1329 16 2394 13 2199 12 1486 7 1097
1585 -1.8554843366892546 2.0230290897728995 5.2632377842732225 162 88 92 1.1966700825484973 4 532 13 1192 12 890
1445 -1.6195918331930512 2.9090558085462024 4.7155282955930469 135 61 52 1.0345116197789093 4 1383 16 2563 13 3982 12 4034
1748 -2.4795206245900276 3.0805528802410658 3.6775052887850568 6 5 6 0.99161056282111748 13 343 12 382 7 512 15 399
2267 -2.436186994250348 1.9609900082156808 4.0612026005903816 2 1 2 1.5748845761964487 7 1570 1 1034 14 815
1448 -1.0265843326866761 4.0763500138117648 3.7722273568069782 122 95 91 0.84918993122078223 4 1466 16 2630 13 2916
1593 -1.0471443907942899 2.8831837388861015 4.7704144153655834 243 89 94 0.29333395543261276 16 2142 13 1388 12 1200 7 1191
1450 -0.53073468736799789 4.0300988626994272 3.8951374749939878 76 67 58 1.5534139707552352 4 1607 16 3046 12 1898
1453 -1.8155287898738626 2.1793717380911897 5.1817771870105265 159 138 136 0.87203242753146526 4 1532 16 3232 13 2192
1756 -0.47453047403363874 3.1523550056797442 4.6289584383631617 209 180 137 0.3320671687149585 13 575 12 507 7 579
2098 -3.1659006593509416 1.9311790922134981 3.7322052523552816 9 21 15 1.2437037621595115 7 227 12 440 15 244
1456 -1.3355570829666563 3.0145951492609893 4.6361750851945107 181 90 92 2.6080876009876302 4 1756 16 3321 13 4782
1537 -0.86494415196065155 3.3475095753119768 4.4361138786533649 162 79 75 0.892089852864282 16 510 13 567 12 470 7 565
1457 -1.3934149139465046 3.1296825297447857 4.5055295332155278 184 109 109 0.83194565537428444 4 1550 16 3331 13 2727
1459 -1.0483265415377498 3.3823866903913582 4.3636246142266408 172 106 108 1.3919690123351807 4 1632 16 3427 13 3107
1460 -1.1572805396031858 3.4627991775180682 4.2845949491300761 158 100 104 0.65861978734903226 4 984 16 3428 13 3078
1541 -6.160212335904844 0.55255331489071335 5.6513005730721479 210 187 179 1.4099693239871649 4 477 16 624 13 609 12 525 7 90
1461 -2.5173813495132387 1.6748582050102856 5.4014196202928737 170 95 92 1.6842675949376051 4 61 16 30 9 113
1545 -2.6322819043444814 1.9034380092787029 3.8844185482413995 26 26 26 0.95129324988638087 16 889 13 680 12 794 15 551
1465 -5.8345753155875073 0.6512865876652264 5.6296485154774913 205 178 168 0.92147330623916723 4 182 16 355 13 394 12 290 7 416 15 221 1 430 10 263 14 338
1467 -3.9914608253845079 1.9434371667597852 3.8907055285334127 0 5 1 1.7912367264944755 16 11 12 20 7 39 14 17
2056 -8.7937815653193052 2.1765394761386094 3.857616568045712 182 103 76 1.9035517835972751 7 43 15 40 8 52
1468 -8.4739391433960218 0.71874056300070532 4.9745899615200919 229 123 129 1.4344449046645358 16 25 13 43 12 101 15 47 14 93
1549 -2.740622040124705 3.2031378072091052 4.3116447884710549 3 2 0 1.9526327738731739 16 694 12 758
1469 -3.6686811140281628 2.1815555112479776 3.5860154680315337 0 2 1 1.8599286843021581 16 41 13 56 12 157 15 103 14 100
1470 -3.4125400194771389 2.6575236774457776 3.4546273860981462 3 2 0 1.4129168103960366 16 31 13 57 12 229 7 484
1472 -4.5149619247150543 0.4294816660867018 5.5144863044447314 149 136 128 0.064510340775867842 16 116 12 46
1617 -0.72329077720433499 4.291283288068529 3.6619549543137682 234 105 125 0.36667128130187399 4 1051 13 1514 12 1269
2048 -2.6034298915124836 1.2599891432713999 3.9034357104617339 1 12 2 2.0650544263129529 12 1599 7 1232
1475 -3.3347507825504472 1.9896052049423325 3.5775143770168452 5 5 5 1.3697690557248068 13 115 12 119 15 191 7 220 1 207 10 265 2 211 3 162 8 241
1476 -5.551569723787436 2.6980254978104061 4.0296943047579754 153 155 142 2.0784655591147612 16 139 13 140 12 166
1621 -1.2062776451058972 2.8057565694766655 4.797404507917161 241 89 97 0.37625678491611947 4 1193 16 1427 13 1532 12 1186
2106 -1.5527101257653673 3.0724511527190059 4.5152512897174022 180 144 120 1.2003760166577366 7 321 15 274 8 413
1477 -2.8341465813501845 2.6379452080437691 3.4640867249816178 3 1 2 1.2051228433030059 13 145 12 122 15 88 7 155
2647 -2.0944695874371257 1.6466854282233319 5.5544701028353334 164 121 105 1.044897642516404 2 99 3 129 11 90
1478 -2.7402940538165006 2.9959001297628918 3.6167145948763295 24 23 19 1.0483370650175328 16 103 13 154 12 130 15 216
2857 -4.76527315944743 1.3353057952676979 4.68581480486956 76 89 80 1.5970183703165974 3 226 6 213 11 303
1483 -3.6583844235072998 1.9701512551955771 3.6513359079861014 110 123 114 1.26452108997928 16 215 13 226 12 280
2136 -1.609236884738144 3.0330681058846753 4.5218246828341941 112 89 75 0.73024416980585516 12 724 15 469 1 712
2850 -1.7778557506664345 1.457259763275919 5.8133703677910633 212 103 99 1.4513262089041732 3 270 6 155 11 236
1484 -3.3716056172487643 1.7482045692131061 3.767092644212755 5 10 6 1.0736891022592658 16 213 13 227 12 185 15 255 7 218 1 357
1629 -1.3012049768680896 4.5465167771965618 3.3748208095626846 148 45 60 0.19181121510121649 4 1297 16 1823 13 1569
1486 -3.536440744782019 1.9958827379578825 3.6102086188546769 6 4 5 1.01726029304206 16 219 13 229 12 272 7 647 15 344
2064 -2.0914093107116081 2.4419353108602473 4.9288723833642445 58 23 27 1.2515756503818245 7 118 15 72 1 82
1491 -4.9400098479283585 3.5093719959749929 3.5332079082469532 150 150 140 0.70829495173971113 16 340 13 260 12 398
1492 -2.9546316785062601 1.4685426330500244 4.0953986155384925 0 2 0 1.0829522040153508 16 380 13 264 12 446
1701 -1.9424023637827326 4.6853721849724508 3.1288348189876878 147 41 55 0.59570036006960181 4 1166 13 1451
2727 -5.1092496310684927 0.93484054015380535 5.5721606183154817 208 133 125 1.1040191347423818 2 462 3 495 11 688
1494 -3.002770613311267 2.5014042917331207 3.4344451276857484 52 54 53 0.54586205413208877 16 342 13 267 12 414
2873 -2.3555043540549434 1.4215058262643219 5.736655586243236 160 132 121 0.2049609087761636 3 446 6 397 11 1003
2216 -0.49115742425201231 3.0068893180260554 4.7890738221070954 221 192 152 2.1030951489135359 7 271 1 177 8 149
1499 -0.43110859201460283 3.7087570341912657 4.179065317530001 106 65 62 1.4799943637466104 16 280 13 287 12 309 7 462
2866 -2.9417847288821695 0.13759378509500464 6.5488856840594458 203 147 134 0.65254102276657644 3 584 6 355 11 915
1500 -1.3700655901708063 4.4159211723638494 3.4461119273620322 93 74 70 1.0398232528773985 16 279 13 289 12 335
1501 -0.78806372267712299 3.3853064666513051 4.4143370478991617 170 71 74 0.53423498021700311 16 291 13 298 12 329 7 437
1502 -3.2378337869950604 1.9904563623837748 3.6791992737635493 9 15 3 1.7064247751294315 16 224 13 316 12 543 15 526
1504 -2.609062769184193 3.795192464251135 3.7084257300250307 122 102 91 1.2339690691465008 4 378 13 336 12 564 5 618
1649 -1.4202348954485458 3.3671745750280264 4.3159825145298853 118 108 106 0.87330199514210405 4 1384 13 1860 7 1301
2080 -2.2391314715564086 2.8261561496823893 3.8148347303835863 1 1 0 0.84610379310340866 7 175 15 134 1 162
1507 -6.2020132890452002 -1.1055772876955667 6.9806233638190056 206 134 131 0.13537642622642221 16 254 13 374
1508 -5.9928252676670066 0.73551989502910509 5.822562929394925 189 143 143 1.8356902087895801 16 202 13 398
1653 -1.7291310384486047 4.522476206671211 3.2631516570684176 217 102 107 0.77618752739183705 4 1238 16 1762 13 1908
1509 -5.7904468200092696 1.5826199511850245 4.9330548121522124 200 201 187 0.46452950021471723 16 394 13 399 12 181
2679 -2.7215375720465631 2.0111251143478754 3.7505988453680259 106 109 98 0.20189551597620781 2 192 3 239 6 298
1510 -4.6181353618196983 0.87229189721647216 5.1939648761791464 219 141 139 0.34209967289671017 4 304 15 352
1512 -3.7035246732450813 1.7846304549402685 3.7358806989545226 2 8 4 0.90952491368399324 16 388 13 407 12 279 7 636 15 349 1 532 8 354 10 416
1657 -0.53937128774966692 4.2574957751193985 3.7158520552598588 191 70 77 0.60546359687385198 4 1334 13 1995 12 1593
2168 -1.5116282513728529 2.0571529268478352 5.3028852587688089 130 83 77 0.81637012080817684 15 823 8 840
1515 -3.2745487569482385 1.7076176664541565 3.7912173126368973 195 208 198 0.79295249376166643 16 379 13 423 12 270 15 236 7 402
1661 -1.5452172270800462 2.9609664852808 4.6419473571219143 106 84 80 1.6180031479048906 4 1381 16 2305 13 2110
2162 -2.5438077143325217 1.7686672293451808 4.1256283716196167 13 17 18 0.97481869898404538 7 912 15 760 14 681
1517 -3.1748231769284154 1.6775003003232796 3.8276763226390944 183 197 184 0.78314092943086544 16 214 13 426 12 266 15 239 7 398
1518 -3.0931467481216783 1.5767790436055127 3.9422809538594756 150 165 156 0.85103534566312722 16 378 13 427 12 265 15 328 7 393
1520 -8.7963319064771941 0.49877123558586445 5.1318399141236384 146 85 80 0.71683990700294642 16 548 13 445 12 588 7 598 14 537
1601 -1.4156467949118519 4.4627910153407404 3.3970446477061267 195 75 84 0.49154826023821957 4 1322 16 1790 13 1471
2096 -8.1891837467237671 2.7513261628057584 3.0027922533290403 46 32 31 0.86908080685975797 7 419 15 218
1523 -8.2669053631158462 1.2533586869373501 4.6246816782715685 233 139 142 0.86011976608912233 16 415 13 451 7 618 14 541
1524 -3.8539947859111661 1.1728420113662914 4.4990984013102322 58 63 59 1.9737204238124206 16 257 13 461 12 535 7 638 1 308 8 251
1605 -1.2850117006902939 4.4342205230687197 3.4734833664475429 236 127 132 1.1001045603735695 4 1317 13 1477 12 1232
2090 -3.1525898781532562 2.2700941897482898 3.4595119529165914 0 1 5 0.74766669146772435 7 229 15 198 1 214 8 247
1525 -3.7142246853436487 1.8452893763951104 3.7025614381105161 128 135 127 0.76166069722927288 16 427 13 463 12 536 7 637 15 350 1 735
2631 -3.1410635742650213 1.1309829766504145 5.6908771483946534 65 31 32 1.8840928950921665 8 1220 3 53 6 58 11 87
1526 -3.5914764986171548 1.7974484887538011 3.7009002177965207 176 189 179 0.72848521853737558 16 386 13 464 12 537 7 640 15 347
1528 -3.6690675339922287 1.9391799713095073 3.6304993847825098 111 121 113 0.60644675756808664 16 429 13 466 12 613
1609 -1.019575031583194 4.3568323633786683 3.5503314517944964 236 122 126 0.4024095086284839 4 1278 16 1663 13 1485 12 1246
1531 -3.4145227275396794 2.0983910287351337 3.5210804087088285 2 9 2 1.2356667631553031 16 359 13 475 12 408 7 479 15 338
2120 -2.8617373612894621 1.500015232715963 4.1243507774635724 71 79 76 0.69491940987202705 7 372 15 370 1 346
1532 -2.5760828527525961 1.7926618305057487 4.0821635273944281 2 2 2 1.8225145398162841 16 762 13 497 12 788 7 741 15 559
1613 -0.85225191472259498 4.3211504485385834 3.6169428477779695 228 108 118 0.45131493193011007 4 1048 16 1210 13 1501 12 1256
1533 -2.6298375168226125 2.0203635516746346 3.7915921943247586 29 31 30 1.0164154407342241 16 750 13 501 12 553 7 494 15 550
1534 -2.4992372691156839 1.9435425935475199 4.0565879287611599 1 1 1 0.86369670479008276 16 748 13 505 12 781 15 566
1536 -1.0483106332734786 3.0522565426128248 4.6467665808624243 230 73 74 0.37841764152005442 16 502 13 554 12 458
1538 -0.69071806839591543 3.4612528343584117 4.3567761192282077 206 126 107 0.58582078699905182 16 659 13 579 12 475
3003 -3.0071147553255702 3.3069812688422391 3.5262778347620976 5 1 2 1.2788449173145737 5 160 17 222
1544 -2.7461649954925655 1.8877583859724205 4.0156157914864146 1 2 0 1.1128303850760115 16 763 12 415 7 492 15 383
1546 -1.3877430433464168 3.4955616044858138 4.1980460322655127 106 96 87 1.2650424152590243 4 618 13 687 12 704 7 551 15 432 14 513
1551 -1.2408218418690868 2.7951305622662517 4.7819978781480481 218 66 77 1.2165786446696416 16 501 13 758 12 452 15 490 8 460 10 599
1552 -1.3960541706125771 3.4445251021177423 4.2451365985983891 107 99 88 0.21430012789470498 4 620 13 776 12 993
2957 -0.88422261718299244 0.8586206100217455 6.5246637589806671 172 59 58 0.79090359525216913 6 681 11 409
1554 -0.38195138515601762 3.7403524479033883 4.158638089421105 196 101 81 0.80444875458323795 16 569 13 799 12 641 7 587
1556 -0.46440257078342678 3.6719197835236876 4.2152011502384008 161 116 103 0.39295305563932414 16 559 13 804 12 646 7 684
2438 -2.3154111679666514 2.2313827773397636 3.9645835994931238 22 24 21 1.4586168711495346 8 78 10 58 2 47
1559 -0.97233148749624754 3.1173024128299081 4.5847662405748837 241 162 101 0.4041767507884006 16 622 13 854 12 695
1560 -1.5390755457731127 3.7332003876886768 3.9927716219677167 120 109 100 0.30623782100578129 16 636 13 858 12 710
1562 -1.4878083018055008 3.0962331390457747 4.5147349285974565 202 162 140 0.36183521565129578 4 701 13 927 12 844
1564 -1.7682811546714956 3.485102730793566 4.150488645765904 133 128 122 0.71424605607280878 4 682 16 1462 13 932 12 1659 7 1177 15 681
1567 -1.8570104621457204 4.6001906870721214 3.1943680249401165 190 80 85 1.4563022689767395 4 873 13 1006
1568 -1.782205104018256 4.519610306425653 3.2952345010623172 110 92 82 0.68991133641334967 4 866 16 1097 13 1007
2909 -4.3062347300528225 0.84494397372354924 5.4628646025369951 55 58 51 0.260779892727588 3 798 6 808 11 1136
2252 -2.1628766370829409 1.5580866547589345 5.5453981140763284 217 187 155 0.8928219240163261 15 899 1 705 8 813
1570 -1.2336100582657976 4.4355185670495114 3.4486345091112627 239 133 136 0.51923981129807872 16 1124 13 1032 12 1047
2390 -4.363523994633919 0.92426987104596692 5.2161679552630211 105 120 110 1.8618698531788502 7 1061 8 772 10 502 2 297 3 364
1575 -8.8796278572730749 0.54795964405169206 4.776558965103245 111 117 107 1.2059893144163609 16 1619 13 1081 7 1049
